10.000000 -0.000000 -0.000000 1.000000 -0.000000 -0.000000
9.922283 -0.000000 1.244304 0.992228 -0.000000 0.124430
9.685346 -0.000000 2.488789 0.968535 -0.000000 0.248879
9.244076 -0.000000 3.814060 0.924408 -0.000000 0.381406
8.625029 -0.000000 5.060520 0.862503 -0.000000 0.506052
7.766423 0.042852 6.299273 0.776642 0.004285 0.629927
6.564981 -0.000000 7.543276 0.656498 -0.000000 0.754328
4.790765 -0.000000 8.777731 0.479077 -0.000000 0.877773
0.596493 -0.000000 9.982194 0.059649 -0.000000 0.998219
9.927505 -0.000000 -1.201933 0.992751 -0.000000 -0.120193
9.684762 -0.000000 -2.491060 0.968476 -0.000000 -0.249106
9.275841 0.042941 -3.735898 0.927584 0.004294 -0.373590
8.693312 0.042975 -4.942113 0.869331 0.004297 -0.494211
7.888576 0.042976 -6.145610 0.788858 0.004298 -0.614561
6.682936 0.042999 -7.438852 0.668294 0.004300 -0.743885
4.812402 0.042970 -8.765783 0.481240 0.004297 -0.876578
1.182751 -0.000000 -9.929809 0.118275 -0.000000 -0.992981
9.682959 2.498062 -0.000000 0.968296 0.249806 -0.000000
9.607198 2.499211 1.206516 0.960720 0.249921 0.120652
9.342695 2.499673 2.542770 0.934270 0.249967 0.254277
8.893604 2.496260 3.830468 0.889360 0.249626 0.383047
8.283077 2.540000 4.993899 0.828308 0.254000 0.499390
7.327961 2.534526 6.314837 0.732796 0.253453 0.631484
6.122186 2.487507 7.505408 0.612219 0.248751 0.750541
4.156015 2.487387 8.748739 0.415602 0.248739 0.874874
9.595337 2.501167 -1.293707 0.959534 0.250117 -0.129371
9.353050 2.502045 -2.502045 0.935305 0.250204 -0.250204
8.890467 2.499589 -3.835577 0.889047 0.249959 -0.383558
8.262404 2.501964 -5.047065 0.826240 0.250196 -0.504706
7.328509 2.497181 -6.329063 0.732851 0.249718 -0.632906
6.145773 2.494584 -7.483751 0.614577 0.249458 -0.748375
4.179935 2.495704 -8.734965 0.417993 0.249570 -0.873496
8.660472 4.999623 -0.000000 0.866047 0.499962 -0.000000
8.575178 5.000918 1.207118 0.857518 0.500092 0.120712
8.305317 4.955579 2.542428 0.830532 0.495558 0.254243
7.821452 4.984770 3.738577 0.782145 0.498477 0.373858
7.056923 5.031438 4.988434 0.705692 0.503144 0.498843
6.015150 4.990448 6.238061 0.601515 0.499045 0.623806
4.305022 4.986807 7.523200 0.430502 0.498681 0.752320
0.916236 4.977443 8.624707 0.091624 0.497744 0.862471
8.573568 5.003526 -1.207748 0.857357 0.500353 -0.120775
8.264702 5.044044 -2.500466 0.826470 0.504404 -0.250047
7.770303 5.030541 -3.783655 0.777030 0.503054 -0.378366
7.107103 4.995876 -4.952808 0.710710 0.499588 -0.495281
5.992124 5.001246 -6.251558 0.599212 0.500125 -0.625156
4.400301 5.000994 -7.458379 0.440030 0.500099 -0.745838
1.246204 4.996752 -8.572015 0.124620 0.499675 -0.857202
6.574990 7.534513 0.024769 0.657499 0.753451 0.002477
6.408631 7.573767 -1.252001 0.640863 0.757377 -0.125200
6.067374 7.545633 -2.500079 0.606737 0.754563 -0.250008
5.349450 7.549417 -3.793373 0.534945 0.754942 -0.379337
4.181169 7.569710 -5.021684 0.418117 0.756971 -0.502168
1.948997 7.528073 -6.287252 0.194900 0.752807 -0.628725
6.442826 7.541350 1.272015 0.644283 0.754135 0.127202
6.065077 7.541130 2.519165 0.606508 0.754113 0.251917
5.382300 7.545661 3.754176 0.538230 0.754566 0.375418
3.943114 7.530528 5.267163 0.394311 0.753053 0.526716
2.474188 7.525431 6.102973 0.247419 0.752543 0.610297
-9.999936 -0.028824 -0.021186 -0.999994 -0.002882 -0.002119
-9.923695 -0.028844 -1.232657 -0.992370 -0.002884 -0.123266
-9.681871 -0.028848 -2.502107 -0.968187 -0.002885 -0.250211
-9.239867 -0.028810 -3.824138 -0.923987 -0.002881 -0.382414
-8.671388 -0.028834 -4.980581 -0.867139 -0.002883 -0.498058
-7.832097 -0.028820 -6.217510 -0.783210 -0.002882 -0.621751
-6.596372 -0.028825 -7.515787 -0.659637 -0.002883 -0.751579
-5.227861 -0.057649 -8.524444 -0.522786 -0.005765 -0.852444
-0.977620 -0.000000 -9.952098 -0.097762 -0.000000 -0.995210
-9.921722 -0.028856 1.248437 -0.992172 -0.002886 0.124844
-9.677511 -0.028865 2.518916 -0.967751 -0.002887 0.251892
-9.278225 0.028856 3.730108 -0.927823 0.002886 0.373011
-8.675590 -0.000000 4.973342 -0.867559 -0.000000 0.497334
-7.834413 0.028869 6.214591 -0.783441 0.002887 0.621459
-6.626308 0.028887 7.489406 -0.662631 0.002889 0.748941
-4.832201 -0.028869 8.754942 -0.483220 -0.002887 0.875494
-0.762524 -0.028879 9.970844 -0.076252 -0.002888 0.997084
-9.677638 2.518507 -0.021277 -0.967764 0.251851 -0.002128
-9.601495 2.491233 -1.266908 -0.960149 0.249123 -0.126691
-9.352994 2.491479 -2.512773 -0.935299 0.249148 -0.251277
-8.903844 2.488405 -3.811745 -0.890384 0.248841 -0.381175
-8.294862 2.489296 -4.999867 -0.829486 0.248930 -0.499987
-7.364872 2.485002 -6.291536 -0.736487 0.248500 -0.629154
-6.132065 2.508896 -7.490209 -0.613206 0.250890 -0.749021
-4.194223 2.480671 -8.732397 -0.419422 0.248067 -0.873240
-0.386644 2.479572 -9.679991 -0.038664 0.247957 -0.967999
-9.595336 2.521372 1.253876 -0.959534 0.252137 0.125388
-9.355828 2.493002 2.500684 -0.935583 0.249300 0.250068
-8.919472 2.491082 3.773265 -0.891947 0.249108 0.377327
-8.280630 2.492559 5.021784 -0.828063 0.249256 0.502178
-7.357928 2.517427 6.286768 -0.735793 0.251743 0.628677
-6.129735 2.513559 7.490552 -0.612974 0.251356 0.749055
-4.250944 2.457864 8.711394 -0.425094 0.245786 0.871139
-1.071603 2.484286 9.627045 -0.107160 0.248429 0.962704
-8.654133 5.010581 0.007675 -0.865413 0.501058 0.000768
-8.572524 4.986481 1.283294 -0.857252 0.498648 0.128329
-8.309601 4.984476 2.470938 -0.830960 0.498448 0.247094
-7.799217 4.999863 3.764782 -0.779922 0.499986 0.376478
-7.055481 5.007160 5.014831 -0.705548 0.500716 0.501483
-5.943635 5.009426 6.291173 -0.594364 0.500943 0.629117
-4.305479 5.009685 7.507723 -0.430548 0.500969 0.750772
-0.181178 5.003935 8.656085 -0.018118 0.500394 0.865609
-8.559354 5.013115 -1.267333 -0.855935 0.501311 -0.126733
-8.282524 5.009245 -2.511427 -0.828252 0.500925 -0.251143
-7.810250 4.996206 -3.746721 -0.781025 0.499621 -0.374672
-7.055040 5.000674 -5.021920 -0.705504 0.500067 -0.502192
-5.921504 5.030649 -6.295106 -0.592150 0.503065 -0.629511
-4.232971 5.029068 -7.535943 -0.423297 0.502907 -0.753594
-0.879981 4.991966 -8.620087 -0.087998 0.499197 -0.862009
-6.540666 7.564340 -0.021302 -0.654067 0.756434 -0.002130
-6.500033 7.482657 -1.326431 -0.650003 0.748266 -0.132643
-6.066503 7.541141 -2.515696 -0.606650 0.754114 -0.251570
-5.368863 7.513995 -3.836039 -0.536886 0.751399 -0.383604
-4.239419 7.530418 -5.031912 -0.423942 0.753042 -0.503191
-2.113478 7.521917 -6.241311 -0.211348 0.752192 -0.624131
-6.442710 7.544235 1.255390 -0.644271 0.754424 0.125539
-6.065945 7.545630 2.503553 -0.606595 0.754563 0.250355
-5.401531 7.524132 3.769735 -0.540153 0.752413 0.376974
-4.122657 7.599219 5.025491 -0.412266 0.759922 0.502549
-1.939701 7.527781 6.290475 -0.193970 0.752778 0.629047
9.682959 -2.498062 -0.000000 0.968296 -0.249806 -0.000000
9.607198 -2.499211 1.206516 0.960720 -0.249921 0.120652
9.342695 -2.499673 2.542770 0.934270 -0.249967 0.254277
8.893604 -2.496260 3.830468 0.889360 -0.249626 0.383047
8.283077 -2.540000 4.993899 0.828308 -0.254000 0.499390
7.327961 -2.534526 6.314837 0.732796 -0.253453 0.631484
6.122186 -2.487507 7.505408 0.612219 -0.248751 0.750541
4.156015 -2.487387 8.748739 0.415602 -0.248739 0.874874
9.595337 -2.501167 -1.293707 0.959534 -0.250117 -0.129371
9.353050 -2.502045 -2.502045 0.935305 -0.250204 -0.250204
8.890467 -2.499589 -3.835577 0.889047 -0.249959 -0.383558
8.262404 -2.501964 -5.047065 0.826240 -0.250196 -0.504706
7.328509 -2.497181 -6.329063 0.732851 -0.249718 -0.632906
6.145773 -2.494584 -7.483751 0.614577 -0.249458 -0.748375
4.179935 -2.495704 -8.734965 0.417993 -0.249570 -0.873496
8.660472 -4.999623 -0.000000 0.866047 -0.499962 -0.000000
8.575178 -5.000918 1.207118 0.857518 -0.500092 0.120712
8.305317 -4.955579 2.542428 0.830532 -0.495558 0.254243
7.821452 -4.984770 3.738577 0.782145 -0.498477 0.373858
7.056923 -5.031438 4.988434 0.705692 -0.503144 0.498843
6.015150 -4.990448 6.238061 0.601515 -0.499045 0.623806
4.305022 -4.986807 7.523200 0.430502 -0.498681 0.752320
0.916236 -4.977443 8.624707 0.091624 -0.497744 0.862471
8.573568 -5.003526 -1.207748 0.857357 -0.500353 -0.120775
8.264702 -5.044044 -2.500466 0.826470 -0.504404 -0.250047
7.770303 -5.030541 -3.783655 0.777030 -0.503054 -0.378366
7.107103 -4.995876 -4.952808 0.710710 -0.499588 -0.495281
5.992124 -5.001246 -6.251558 0.599212 -0.500125 -0.625156
4.400301 -5.000994 -7.458379 0.440030 -0.500099 -0.745838
1.246204 -4.996752 -8.572015 0.124620 -0.499675 -0.857202
6.574990 -7.534513 0.024769 0.657499 -0.753451 0.002477
6.408631 -7.573767 -1.252001 0.640863 -0.757377 -0.125200
6.067374 -7.545633 -2.500079 0.606737 -0.754563 -0.250008
5.349450 -7.549417 -3.793373 0.534945 -0.754942 -0.379337
4.181169 -7.569710 -5.021684 0.418117 -0.756971 -0.502168
1.948997 -7.528073 -6.287252 0.194900 -0.752807 -0.628725
6.442826 -7.541350 1.272015 0.644283 -0.754135 0.127202
6.065077 -7.541130 2.519165 0.606508 -0.754113 0.251917
5.382300 -7.545661 3.754176 0.538230 -0.754566 0.375418
3.943114 -7.530528 5.267163 0.394311 -0.753053 0.526716
2.474188 -7.525431 6.102973 0.247419 -0.752543 0.610297
-9.677638 -2.518507 -0.021277 -0.967764 -0.251851 -0.002128
-9.601495 -2.491233 -1.266908 -0.960149 -0.249123 -0.126691
-9.352994 -2.491479 -2.512773 -0.935299 -0.249148 -0.251277
-8.903844 -2.488405 -3.811745 -0.890384 -0.248841 -0.381175
-8.294862 -2.489296 -4.999867 -0.829486 -0.248930 -0.499987
-7.364872 -2.485002 -6.291536 -0.736487 -0.248500 -0.629154
-6.132065 -2.508896 -7.490209 -0.613206 -0.250890 -0.749021
-4.194223 -2.480671 -8.732397 -0.419422 -0.248067 -0.873240
-0.386644 -2.479572 -9.679991 -0.038664 -0.247957 -0.967999
-9.595336 -2.521372 1.253876 -0.959534 -0.252137 0.125388
-9.355828 -2.493002 2.500684 -0.935583 -0.249300 0.250068
-8.919472 -2.491082 3.773265 -0.891947 -0.249108 0.377327
-8.280630 -2.492559 5.021784 -0.828063 -0.249256 0.502178
-7.357928 -2.517427 6.286768 -0.735793 -0.251743 0.628677
-6.129735 -2.513559 7.490552 -0.612974 -0.251356 0.749055
-4.250944 -2.457864 8.711394 -0.425094 -0.245786 0.871139
-1.071603 -2.484286 9.627045 -0.107160 -0.248429 0.962704
-8.654133 -5.010581 0.007675 -0.865413 -0.501058 0.000768
-8.572524 -4.986481 1.283294 -0.857252 -0.498648 0.128329
-8.309601 -4.984476 2.470938 -0.830960 -0.498448 0.247094
-7.799217 -4.999863 3.764782 -0.779922 -0.499986 0.376478
-7.055481 -5.007160 5.014831 -0.705548 -0.500716 0.501483
-5.943635 -5.009426 6.291173 -0.594364 -0.500943 0.629117
-4.305479 -5.009685 7.507723 -0.430548 -0.500969 0.750772
-0.181178 -5.003935 8.656085 -0.018118 -0.500394 0.865609
-8.559354 -5.013115 -1.267333 -0.855935 -0.501311 -0.126733
-8.282524 -5.009245 -2.511427 -0.828252 -0.500925 -0.251143
-7.810250 -4.996206 -3.746721 -0.781025 -0.499621 -0.374672
-7.055040 -5.000674 -5.021920 -0.705504 -0.500067 -0.502192
-5.921504 -5.030649 -6.295106 -0.592150 -0.503065 -0.629511
-4.232971 -5.029068 -7.535943 -0.423297 -0.502907 -0.753594
-0.879981 -4.991966 -8.620087 -0.087998 -0.499197 -0.862009
-6.540666 -7.564340 -0.021302 -0.654067 -0.756434 -0.002130
-6.500033 -7.482657 -1.326431 -0.650003 -0.748266 -0.132643
-6.066503 -7.541141 -2.515696 -0.606650 -0.754114 -0.251570
-5.368863 -7.513995 -3.836039 -0.536886 -0.751399 -0.383604
-4.239419 -7.530418 -5.031912 -0.423942 -0.753042 -0.503191
-2.113478 -7.521917 -6.241311 -0.211348 -0.752192 -0.624131
-6.442710 -7.544235 1.255390 -0.644271 -0.754424 0.125539
-6.065945 -7.545630 2.503553 -0.606595 -0.754563 0.250355
-5.401531 -7.524132 3.769735 -0.540153 -0.752413 0.376974
-4.122657 -7.599219 5.025491 -0.412266 -0.759922 0.502549
-1.939701 -7.527781 6.290475 -0.193970 -0.752778 0.629047
